# .PCD v0.7 - Point Cloud Data file format
VERSION 0.7
FIELDS x y z rgb
SIZE 4 4 4 4
TYPE F F F U
COUNT 1 1 1 1
WIDTH 1098
HEIGHT 1
VIEWPOINT 0 0 0 1 0 0 0
POINTS 1098
DATA ascii
0.42737603 -0.32622501 0.72799999 4294967295
0.43522373 -0.3253288 0.72600001 4294967295
0.44363365 -0.32488069 0.72500002 4294967295
0.45514032 -0.32667312 0.72899997 4294967295
0.46419939 -0.32667312 0.72899997 4294967295
0.48396218 -0.32174391 0.71799999 4294967295
0.48464692 -0.31636655 0.70599997 4294967295
0.48922682 -0.31367791 0.69999999 4294967295
0.49863684 -0.31412601 0.70099998 4294967295
0.51386172 -0.31815901 0.70999998 4294967295
0.53225499 -0.32398447 0.72299999 4294967295
0.79576427 -0.47634229 1.063 4294967295
0.80440772 -0.47365367 1.057 4294967295
0.81908965 -0.47454986 1.059 4294967295
0.84246606 -0.48037532 1.072 4294967295
0.87414861 -0.49068189 1.095 4294967295
0.89424175 -0.49426678 1.103 4294967295
0.89313149 -0.48620078 1.085 4294967295
0.89909416 -0.48216775 1.076 4294967295
0.93196964 -0.49247432 1.099 4294967295
0.96713769 -0.50367707 1.124 4294967295
1.0081643 -0.51756853 1.155 4294967295
1.03137 -0.52204967 1.165 4294967295
1.0359724 -0.51712048 1.154 4294967295
1.0366606 -0.51039881 1.1390001 4294967295
1.0471241 -0.50860631 1.135 4294967295
1.0649686 -0.51039881 1.1390001 4294967295
1.0904918 -0.5157761 1.151 4294967295
1.0961561 -0.51174307 1.142 4294967295
1.1074307 -0.51039881 1.1390001 4294967295
1.1225693 -0.51084685 1.14 4294967295
1.1556815 -0.51936102 1.159 4294967295
1.163017 -0.51622421 1.152 4294967295
1.2427399 -0.54490334 1.216 4294967295
1.305434 -0.56551647 1.262 4294967295
1.3106481 -0.56103534 1.252 4294967295
1.3081988 -0.55341744 1.235 4294967295
1.2892514 -0.53907788 1.2029999 4294967295
1.287939 -0.5323562 1.188 4294967295
1.3081846 -0.53459674 1.193 4294967295
1.3329905 -0.53862977 1.202 4294967295
1.3490489 -0.53907788 1.2029999 4294967295
1.6153363 -0.5587948 1.247 4294967295
1.7040694 -0.58388901 1.303 4294967295
1.717621 -0.58299279 1.301 4294967295
1.7098004 -0.57492679 1.283 4294967295
-0.75105387 -0.23352695 0.53600001 4294967295
-0.75689226 -0.23744811 0.54500002 4294967295
-0.76250702 -0.24136926 0.55400002 4294967295
-0.76653409 -0.24485472 0.56199998 4294967295
-0.7690109 -0.24790452 0.56900001 4294967295
-0.77399188 -0.25182569 0.57800001 4294967295
-0.78007585 -0.25618252 0.588 4294967295
-0.78722543 -0.26097506 0.59899998 4294967295
-0.79149812 -0.26489621 0.60799998 4294967295
-0.79683644 -0.26925305 0.61799997 4294967295
-0.8044802 -0.2744813 0.63 4294967295
-0.81056112 -0.27927381 0.64099997 4294967295
-0.81762081 -0.28450203 0.653 4294967295
-0.82438225 -0.28973025 0.66500002 4294967295
-0.83084542 -0.29495844 0.67699999 4294967295
-0.84065479 -0.30149373 0.69199997 4294967295
-0.8512938 -0.30846468 0.708 4294967295
-0.85915524 -0.31456426 0.722 4294967295
-0.86902368 -0.3215352 0.73799998 4294967295
-0.87616438 -0.32763478 0.75199997 4294967295
-0.88295704 -0.33373439 0.76599997 4294967295
-0.88826156 -0.33939829 0.77899998 4294967295
-0.92482227 -0.35726136 0.81999999 4294967295
-0.93470967 -0.36510369 0.838 4294967295
-0.94635564 -0.37381735 0.85799998 4294967295
-0.95532346 -0.38165969 0.87599999 4294967295
-0.95521891 -0.38601652 0.88599998 4294967295
-0.95593154 -0.39080909 0.89700001 4294967295
-0.95637077 -0.3956016 0.90799999 4294967295
-0.68799859 -0.2879875 0.66100001 4294967295
-0.64790356 -0.2744813 0.63 4294967295
-0.64210671 -0.27535266 0.63200003 4294967295
-0.63525659 -0.27578834 0.63300002 4294967295
-0.62937272 -0.2766597 0.63499999 4294967295
-0.62246048 -0.27709538 0.63599998 4294967295
-0.6155234 -0.27753109 0.63700002 4294967295
-0.60665369 -0.27709538 0.63599998 4294967295
-0.59875029 -0.27709538 0.63599998 4294967295
-0.5908469 -0.27709538 0.63599998 4294967295
-0.5847767 -0.27796677 0.63800001 4294967295
-0.57865673 -0.27883813 0.63999999 4294967295
-0.5733788 -0.2801452 0.64300001 4294967295
-0.56626773 -0.28058088 0.64399999 4294967295
-0.55739808 -0.2801452 0.64300001 4294967295
-0.54769874 -0.27927381 0.64099997 4294967295
-0.53973323 -0.27927381 0.64099997 4294967295
-0.53425652 -0.28058088 0.64399999 4294967295
-0.53033948 -0.28275928 0.64899999 4294967295
-0.5254935 -0.28450203 0.653 4294967295
-0.51975584 -0.2858091 0.65600002 4294967295
-0.51082397 -0.28537339 0.65499997 4294967295
-0.50038213 -0.28406635 0.65200001 4294967295
-0.49227992 -0.28406635 0.65200001 4294967295
-0.48789072 -0.28624478 0.65700001 4294967295
-0.48337725 -0.28842318 0.662 4294967295
-0.47658622 -0.28929454 0.66399997 4294967295
-0.46904024 -0.28973025 0.66500002 4294967295
-0.46077648 -0.28973025 0.66500002 4294967295
-0.45251271 -0.28973025 0.66500002 4294967295
-0.44170833 -0.31761405 0.72899997 4294967295
-0.3834973 -0.28755185 0.66000003 4294967295
-0.37757015 -0.28929454 0.66399997 4294967295
-0.38044289 -0.29800826 0.68400002 4294967295
-0.38934386 -0.31195018 0.71600002 4294967295
-0.38044634 -0.31195018 0.71600002 4294967295
-0.38452187 -0.32284227 0.741 4294967295
-0.37480718 -0.32240659 0.74000001 4294967295
-0.36116478 -0.31848544 0.73100001 4294967295
-0.34003976 -0.30759332 0.70599997 4294967295
-0.31672081 -0.29408711 0.67500001 4294967295
-0.30285129 -0.28885886 0.66299999 4294967295
-0.29105747 -0.28537339 0.65499997 4294967295
-0.29026091 -0.29278004 0.67199999 4294967295
-0.28988081 -0.30105805 0.69099998 4294967295
-0.28780729 -0.308029 0.70700002 4294967295
-0.28533608 -0.31499994 0.72299999 4294967295
-0.28820068 -0.32850617 0.75400001 4294967295
-0.27957052 -0.32937753 0.75599998 4294967295
-0.26195627 -0.3193568 0.73299998 4294967295
-0.25250256 -0.31892112 0.73199999 4294967295
-0.24440376 -0.32022819 0.73500001 4294967295
-0.23462993 -0.3193568 0.73299998 4294967295
-0.22613649 -0.32022819 0.73500001 4294967295
-0.21139325 -0.31195018 0.71600002 4294967295
-0.19740506 -0.30410784 0.69800001 4294967295
-0.18981275 -0.3058506 0.70200002 4294967295
-0.15000442 -0.33373439 0.76599997 4294967295
-0.14085236 -0.33460575 0.76800001 4294967295
-0.13353132 -0.34026965 0.78100002 4294967295
-0.054815758 -0.33373439 0.76599997 4294967295
-0.042813253 -0.31543562 0.72399998 4294967295
-0.033909723 -0.31630701 0.72600001 4294967295
-0.024750803 -0.31456426 0.722 4294967295
-0.017352214 -0.34593359 0.79400003 4294967295
0.10695528 -0.28319496 0.64999998 4294967295
0.1100774 -0.2709958 0.62199998 4294967295
0.11761742 -0.27056012 0.62099999 4294967295
0.12694903 -0.27404562 0.62900001 4294967295
0.13390842 -0.27230287 0.625 4294967295
0.14054172 -0.27012444 0.62 4294967295
0.14274682 -0.2601037 0.597 4294967295
0.14614102 -0.25313273 0.58099997 4294967295
0.1504574 -0.2483402 0.56999999 4294967295
0.15505314 -0.24441905 0.56099999 4294967295
0.16317979 -0.24616179 0.565 4294967295
0.17562321 -0.25400412 0.583 4294967295
0.18600465 -0.25836095 0.59299999 4294967295
0.1933737 -0.25836095 0.59299999 4294967295
0.19837311 -0.25531119 0.58600003 4294967295
0.20425138 -0.25356844 0.58200002 4294967295
0.2118471 -0.25400412 0.583 4294967295
0.22021928 -0.25531119 0.58600003 4294967295
0.22750133 -0.25531119 0.58600003 4294967295
0.23558469 -0.25618252 0.588 4294967295
0.244957 -0.25836095 0.59299999 4294967295
0.25104952 -0.25705388 0.58999997 4294967295
0.26013303 -0.25879663 0.59399998 4294967295
0.27111739 -0.2622821 0.602 4294967295
0.28831682 -0.27143151 0.62300003 4294967295
0.28750482 -0.26358917 0.60500002 4294967295
0.28673306 -0.25618252 0.588 4294967295
0.29403996 -0.25618252 0.588 4294967295
0.30442184 -0.25879663 0.59399998 4294967295
0.31705251 -0.26315346 0.60399997 4294967295
0.39817497 -0.32284227 0.741 4294967295
0.40573382 -0.3215352 0.73799998 4294967295
0.41321817 -0.32022819 0.73500001 4294967295
0.42120251 -0.3193568 0.73299998 4294967295
0.42972425 -0.31892112 0.73199999 4294967295
0.43762168 -0.31804976 0.73000002 4294967295
0.44669318 -0.31804976 0.73000002 4294967295
0.45701334 -0.31892112 0.73199999 4294967295
0.46483618 -0.31804976 0.73000002 4294967295
0.47131091 -0.31630701 0.72600001 4294967295
0.47305495 -0.31151447 0.71499997 4294967295
0.4792439 -0.30977175 0.71100003 4294967295
0.48739278 -0.30933604 0.70999998 4294967295
0.494818 -0.30846468 0.708 4294967295
0.50575012 -0.30977175 0.71100003 4294967295
0.52254671 -0.31456426 0.722 4294967295
0.536672 -0.31761405 0.72899997 4294967295
0.79726154 -0.4640041 1.0650001 4294967295
0.80516875 -0.46095428 1.058 4294967295
0.82295698 -0.46356839 1.064 4294967295
0.8511107 -0.47184637 1.0829999 4294967295
0.89969444 -0.49101651 1.127 4294967295
0.91369939 -0.49101651 1.127 4294967295
0.90877151 -0.48099577 1.104 4294967295
0.91162795 -0.47533187 1.091 4294967295
0.93705779 -0.48143148 1.105 4294967295
0.98434663 -0.49842319 1.1440001 4294967295
1.0264945 -0.51236504 1.176 4294967295
1.0535026 -0.51846468 1.1900001 4294967295
1.0646994 -0.5167219 1.186 4294967295
1.0585041 -0.50670117 1.163 4294967295
1.0701885 -0.5053941 1.16 4294967295
1.0976937 -0.51149368 1.174 4294967295
1.1236517 -0.5167219 1.186 4294967295
1.1431891 -0.51890033 1.191 4294967295
1.1511834 -0.51585054 1.184 4294967295
1.1767285 -0.52064312 1.1950001 4294967295
1.2264781 -0.53589207 1.23 4294967295
1.22561 -0.52892107 1.214 4294967295
1.246828 -0.53153521 1.22 4294967295
1.2744015 -0.53676343 1.232 4294967295
1.3315849 -0.55419075 1.272 4294967295
1.3240879 -0.54460573 1.25 4294967295
1.2999685 -0.52848542 1.2130001 4294967295
1.2933595 -0.5197717 1.193 4294967295
1.3059915 -0.51890033 1.191 4294967295
1.3185738 -0.51802897 1.189 4294967295
1.329985 -0.5167219 1.186 4294967295
1.6360624 -0.5502696 1.263 4294967295
1.7106085 -0.56987542 1.308 4294967295
1.7202615 -0.56769699 1.303 4294967295
1.7018043 -0.55636919 1.277 4294967295
1.6934617 -0.54852688 1.2589999 4294967295
-0.74685019 -0.22559644 0.53299999 4294967295
-0.75133711 -0.22898251 0.54100001 4294967295
-0.75562519 -0.23236857 0.54900002 4294967295
-0.75698656 -0.23490812 0.55500001 4294967295
-0.75955027 -0.23787092 0.56199998 4294967295
-0.76461822 -0.24168023 0.57099998 4294967295
-0.77344251 -0.24675934 0.583 4294967295
-0.78065431 -0.25141516 0.59399998 4294967295
-0.78629088 -0.25564775 0.60399997 4294967295
-0.79167897 -0.25988033 0.61400002 4294967295
-0.79937238 -0.26495942 0.62599999 4294967295
-0.8080321 -0.27046177 0.639 4294967295
-0.81386447 -0.27511761 0.64999998 4294967295
-0.8181839 -0.27935019 0.66000003 4294967295
-0.82470918 -0.28442928 0.67199999 4294967295
-0.83215106 -0.28993163 0.685 4294967295
-0.84287703 -0.29670376 0.70099998 4294967295
-0.85082543 -0.30262935 0.71499997 4294967295
-0.86078095 -0.30940151 0.73100001 4294967295
-0.87150395 -0.3165969 0.74800003 4294967295
-0.87949908 -0.32294574 0.76300001 4294967295
-0.89396286 -0.33183417 0.78399998 4294967295
-0.90564913 -0.33987606 0.80299997 4294967295
-0.91128612 -0.34580165 0.81699997 4294967295
-0.91216338 -0.35003427 0.82700002 4294967295
-0.92369747 -0.35849941 0.847 4294967295
-0.93257833 -0.36611804 0.86500001 4294967295
-0.93994612 -0.37331346 0.88200003 4294967295
-0.94057167 -0.37796926 0.89300001 4294967295
-0.67446756 -0.2742711 0.648 4294967295
-0.6499604 -0.26749897 0.63200003 4294967295
-0.64210671 -0.26749897 0.63200003 4294967295
-0.63525659 -0.26792222 0.63300002 4294967295
-0.62838161 -0.26834548 0.634 4294967295
-0.62148178 -0.26876873 0.63499999 4294967295
-0.61455709 -0.26919198 0.63599998 4294967295
-0.60569984 -0.26876873 0.63499999 4294967295
-0.59780884 -0.26876873 0.63499999 4294967295
-0.5899179 -0.26876873 0.63499999 4294967295
-0.5838601 -0.26961526 0.63700002 4294967295
-0.57865673 -0.27088502 0.63999999 4294967295
-0.57248712 -0.27173156 0.64200002 4294967295
-0.56538844 -0.27215481 0.64300001 4294967295
-0.55739808 -0.27215481 0.64300001 4294967295
-0.54855323 -0.27173156 0.64200002 4294967295
-0.5414173 -0.27215481 0.64300001 4294967295
-0.53674531 -0.27384785 0.64700001 4294967295
-0.53197384 -0.27554089 0.65100002 4294967295
-0.52710295 -0.2772339 0.65499997 4294967295
-0.52054811 -0.27808043 0.65700001 4294967295
-0.51082397 -0.2772339 0.65499997 4294967295
-0.49807975 -0.27469435 0.64899999 4294967295
-0.4915249 -0.27554089 0.65100002 4294967295
-0.48640546 -0.2772339 0.65499997 4294967295
-0.4819169 -0.27935019 0.66000003 4294967295
-0.47586849 -0.28061995 0.66299999 4294967295
-0.46833488 -0.2810432 0.66399997 4294967295
-0.46008354 -0.2810432 0.66399997 4294967295
-0.44979084 -0.27977344 0.66100001 4294967295
-0.42959014 -0.30008984 0.70899999 4294967295
-0.42315352 -0.30178285 0.713 4294967295
-0.37129509 -0.27046177 0.639 4294967295
-0.36164853 -0.26919198 0.63599998 4294967295
-0.38155529 -0.29035488 0.68599999 4294967295
-0.362647 -0.31067127 0.73400003 4294967295
-0.34052143 -0.29924333 0.70700002 4294967295
-0.32000533 -0.28866187 0.68199998 4294967295
-0.29736984 -0.27554089 0.65100002 4294967295
-0.28394768 -0.27046177 0.639 4294967295
-0.27946252 -0.27384785 0.64700001 4294967295
-0.2840077 -0.28654557 0.67699999 4294967295
-0.28577188 -0.29712704 0.70200002 4294967295
-0.28296813 -0.30347589 0.71700001 4294967295
-0.27673379 -0.30643868 0.72399998 4294967295
-0.26847646 -0.30728522 0.72600001 4294967295
-0.25766778 -0.30516893 0.72100002 4294967295
-0.24042936 -0.29501075 0.69700003 4294967295
-0.22910775 -0.29162467 0.68900001 4294967295
-0.21990554 -0.29077813 0.68699998 4294967295
-0.21906011 -0.30135959 0.71200001 4294967295
-0.21021229 -0.30135959 0.71200001 4294967295
-0.19485971 -0.29162467 0.68900001 4294967295
-0.1862977 -0.29162467 0.68900001 4294967295
-0.14882945 -0.32167599 0.75999999 4294967295
-0.14048555 -0.3242155 0.76599997 4294967295
-0.13079572 -0.32379225 0.76499999 4294967295
-0.12446024 -0.33225745 0.78500003 4294967295
-0.044469014 -0.31828991 0.75199997 4294967295
-0.034096554 -0.30897826 0.73000002 4294967295
-0.025059331 -0.30940151 0.73100001 4294967295
0.12083722 -0.27003852 0.63800001 4294967295
0.12856364 -0.26961526 0.63700002 4294967295
0.1362652 -0.26919198 0.63599998 4294967295
0.14008835 -0.26157334 0.61799997 4294967295
0.14322503 -0.25353146 0.59899998 4294967295
0.14689563 -0.24718259 0.58399999 4294967295
0.15468076 -0.24802911 0.58600003 4294967295
0.15975173 -0.24464305 0.57800001 4294967295
0.16520149 -0.24210352 0.57200003 4294967295
0.18074431 -0.25395474 0.60000002 4294967295
0.18851399 -0.25437799 0.60100001 4294967295
0.19500417 -0.2531082 0.59799999 4294967295
0.19972718 -0.24972212 0.58999997 4294967295
0.20495325 -0.24718259 0.58399999 4294967295
0.21221046 -0.24718259 0.58399999 4294967295
0.21946767 -0.24718259 0.58399999 4294967295
0.22672486 -0.24718259 0.58399999 4294967295
0.2347834 -0.24802911 0.58600003 4294967295
0.24619626 -0.2522617 0.59600002 4294967295
0.25870866 -0.25734076 0.60799998 4294967295
0.26670206 -0.25776404 0.60900003 4294967295
0.28237641 -0.26538268 0.62699997 4294967295
0.27952382 -0.25564775 0.60399997 4294967295
0.28037658 -0.24972212 0.58999997 4294967295
0.28527012 -0.24760585 0.58499998 4294967295
0.2950401 -0.24972212 0.58999997 4294967295
0.30442184 -0.25141516 0.59399998 4294967295
0.31810239 -0.25649428 0.60600001 4294967295
0.33799198 -0.26622921 0.62900001 4294967295
0.40793294 -0.31405732 0.74199998 4294967295
0.41490474 -0.31236428 0.73799998 4294967295
0.42292643 -0.31151778 0.736 4294967295
0.43148544 -0.31109452 0.73500001 4294967295
0.44001961 -0.31067127 0.73400003 4294967295
0.44852889 -0.31024802 0.73299998 4294967295
0.45701334 -0.30982476 0.73199999 4294967295
0.46483618 -0.30897826 0.73000002 4294967295
0.47001252 -0.30643868 0.72399998 4294967295
0.47503978 -0.30389914 0.71799999 4294967295
0.48463622 -0.30432239 0.71899998 4294967295
0.49288455 -0.30389914 0.71799999 4294967295
0.50180691 -0.30389914 0.71799999 4294967295
0.51713121 -0.30770847 0.727 4294967295
0.53340292 -0.31194103 0.73699999 4294967295
0.5396167 -0.31024802 0.73299998 4294967295
0.80592978 -0.44823009 1.059 4294967295
0.83223838 -0.45542544 1.076 4294967295
0.86368483 -0.46516037 1.099 4294967295
0.91406405 -0.48463026 1.145 4294967295
0.92667115 -0.48378375 1.143 4294967295
0.92523479 -0.47574183 1.124 4294967295
0.94087368 -0.47658837 1.126 4294967295
0.97861058 -0.48843959 1.154 4294967295
1.0256479 -0.5045234 1.192 4294967295
1.0544263 -0.5112955 1.2079999 4294967295
1.0658966 -0.50960249 1.204 4294967295
1.0682904 -0.50367689 1.1900001 4294967295
1.0685158 -0.49690473 1.174 4294967295
1.082182 -0.49648148 1.173 4294967295
1.1266788 -0.51002574 1.205 4294967295
1.1823925 -0.52822584 1.248 4294967295
1.2622114 -0.55658412 1.3150001 4294967295
1.2377166 -0.53880727 1.273 4294967295
1.2338417 -0.5303421 1.253 4294967295
1.2304666 -0.52230018 1.234 4294967295
1.241763 -0.52060717 1.23 4294967295
1.2488719 -0.51722109 1.222 4294967295
1.2485411 -0.51087224 1.207 4294967295
1.2886643 -0.52103043 1.2309999 4294967295
1.2965468 -0.5180676 1.224 4294967295
1.2924665 -0.51044899 1.206 4294967295
1.2944437 -0.5053699 1.194 4294967295
1.3070881 -0.5045234 1.192 4294967295
1.3174648 -0.50283033 1.188 4294967295
1.3266207 -0.50071406 1.183 4294967295
1.7215573 -0.56250972 1.329 4294967295
1.6909914 -0.54727238 1.293 4294967295
1.6700927 -0.53542119 1.265 4294967295
1.6698205 -0.5303421 1.253 4294967295
1.6867362 -0.53076535 1.2539999 4294967295
-0.74685019 -0.218973 0.53299999 4294967295
-0.74994832 -0.22184883 0.54000002 4294967295
-0.75011975 -0.22390299 0.54500002 4294967295
-0.75016683 -0.22595714 0.55000001 4294967295
-0.75279272 -0.22883295 0.55699998 4294967295
-0.75926191 -0.23294125 0.56699997 4294967295
-0.76813591 -0.23787123 0.579 4294967295
-0.77671164 -0.24280122 0.59100002 4294967295
-0.78238547 -0.24690953 0.60100001 4294967295
-0.7878108 -0.25101784 0.611 4294967295
-0.79554158 -0.25594783 0.62300003 4294967295
-0.8042385 -0.26128861 0.63599998 4294967295
-0.81010824 -0.26580775 0.64700001 4294967295
-0.81322521 -0.26950523 0.65600002 4294967295
-0.81857294 -0.27402437 0.667 4294967295
-0.82607698 -0.27936518 0.68000001 4294967295
-0.83566272 -0.28552765 0.69499999 4294967295
-0.84368563 -0.29127929 0.70899999 4294967295
-0.85253817 -0.29744175 0.72399998 4294967295
-0.86101794 -0.30360422 0.73900002 4294967295
-0.87949908 -0.31346416 0.76300001 4294967295
-0.88484085 -0.31880498 0.77600002 4294967295
-0.89549869 -0.32619995 0.79400003 4294967295
-0.8979013 -0.33071908 0.80500001 4294967295
-0.90333951 -0.33647072 0.81900001 4294967295
-0.90952027 -0.34263319 0.83399999 4294967295
-0.91856265 -0.35002813 0.852 4294967295
-0.9228949 -0.35577977 0.866 4294967295
-0.92266607 -0.35988808 0.87599999 4294967295
-0.66301835 -0.26169944 0.63700002 4294967295
-0.65098882 -0.26005611 0.63300002 4294967295
-0.64109069 -0.25923446 0.63099998 4294967295
-0.6322459 -0.25882363 0.63 4294967295
-0.62441707 -0.25882363 0.63 4294967295
-0.61854565 -0.25964528 0.63200003 4294967295
-0.61165828 -0.26005611 0.63300002 4294967295
-0.60379213 -0.26005611 0.63300002 4294967295
-0.59686744 -0.26046696 0.634 4294967295
-0.5899179 -0.26087779 0.63499999 4294967295
-0.5838601 -0.26169944 0.63700002 4294967295
-0.57775259 -0.26252109 0.639 4294967295
-0.57248712 -0.26375359 0.64200002 4294967295
-0.56538844 -0.26416442 0.64300001 4294967295
-0.55653119 -0.26375359 0.64200002 4294967295
-0.54855323 -0.26375359 0.64200002 4294967295
-0.54225928 -0.26457524 0.64399999 4294967295
-0.53757489 -0.26621857 0.648 4294967295
-0.53279102 -0.2678619 0.65200001 4294967295
-0.52629822 -0.26868355 0.65399998 4294967295
-0.51817119 -0.26868355 0.65399998 4294967295
-0.5061447 -0.2666294 0.64899999 4294967295
-0.49807975 -0.2666294 0.64899999 4294967295
-0.49076983 -0.26704022 0.64999998 4294967295
-0.48492029 -0.26827273 0.653 4294967295
-0.47899619 -0.26950523 0.65600002 4294967295
-0.47299749 -0.27073771 0.65899998 4294967295
-0.46551365 -0.27114856 0.66000003 4294967295
-0.45107591 -0.26745108 0.65100002 4294967295
-0.44570798 -0.26909438 0.65499997 4294967295
-0.41444239 -0.28100851 0.68400002 4294967295
-0.37686181 -0.26087779 0.63499999 4294967295
-0.35851184 -0.25348282 0.61699998 4294967295
-0.35198182 -0.2543045 0.61900002 4294967295
-0.36765021 -0.27155939 0.66100001 4294967295
-0.34196633 -0.29169011 0.70999998 4294967295
-0.31859767 -0.27895436 0.67900002 4294967295
-0.30376491 -0.27320272 0.66500002 4294967295
-0.28350332 -0.26211026 0.63800001 4294967295
-0.28507769 -0.27114856 0.66000003 4294967295
-0.28652477 -0.28059769 0.68300003 4294967295
-0.28536478 -0.28799263 0.70099998 4294967295
-0.28060022 -0.29210097 0.71100003 4294967295
-0.27405819 -0.29456595 0.71700001 4294967295
-0.26440862 -0.29374427 0.71499997 4294967295
-0.2515924 -0.28922513 0.704 4294967295
-0.23904955 -0.284706 0.69300002 4294967295
-0.22445244 -0.27731103 0.67500001 4294967295
-0.21318354 -0.27361354 0.66600001 4294967295
-0.20275366 -0.27073771 0.65899998 4294967295
-0.19604066 -0.27279186 0.66399997 4294967295
-0.19429407 -0.28224099 0.68699998 4294967295
-0.18710886 -0.28429514 0.69199997 4294967295
-0.14941694 -0.31346416 0.76300001 4294967295
-0.13956854 -0.31264248 0.76099998 4294967295
-0.13387325 -0.32168078 0.78299999 4294967295
-0.12493588 -0.32373494 0.78799999 4294967295
-0.043286327 -0.30072841 0.73199999 4294967295
-0.034750462 -0.30565837 0.74400002 4294967295
-0.024168028 -0.28963596 0.70499998 4294967295
0.12855208 -0.2464987 0.60000002 4294967295
0.13578142 -0.24608785 0.59899998 4294967295
0.14298593 -0.24567702 0.59799999 4294967295
0.14815331 -0.24197954 0.58899999 4294967295
0.15600057 -0.24280122 0.59100002 4294967295
0.17053081 -0.25348282 0.61699998 4294967295
0.18599607 -0.26457524 0.64399999 4294967295
0.18194924 -0.248142 0.60399997 4294967295
0.19729668 -0.25841281 0.62900001 4294967295
0.20119995 -0.25348282 0.61699998 4294967295
0.2014198 -0.24444455 0.59500003 4294967295
0.20565516 -0.24074706 0.58600003 4294967295
0.2118471 -0.23951456 0.583 4294967295
0.21871607 -0.23910373 0.58200002 4294967295
0.22517195 -0.23828205 0.57999998 4294967295
0.23237945 -0.23828205 0.57999998 4294967295
0.24289159 -0.24156871 0.588 4294967295
0.25913417 -0.25019619 0.60900003 4294967295
0.28465733 -0.26704022 0.64999998 4294967295
0.27922389 -0.25471532 0.62 4294967295
0.27211925 -0.24156871 0.588 4294967295
0.26992187 -0.23335209 0.56800002 4294967295
0.28624544 -0.24115789 0.58700001 4294967295
0.30554155 -0.25101784 0.611 4294967295
0.31825921 -0.25512615 0.62099999 4294967295
0.32020208 -0.25060701 0.61000001 4294967295
0.33960405 -0.25964528 0.63200003 4294967295
0.40903249 -0.30565837 0.74400002 4294967295
0.41602916 -0.30401504 0.74000001 4294967295
0.42407566 -0.30319339 0.73799998 4294967295
0.43265954 -0.30278257 0.73699999 4294967295
0.44121855 -0.30237171 0.736 4294967295
0.44914082 -0.30155006 0.73400003 4294967295
0.45701334 -0.30072841 0.73199999 4294967295
0.46483618 -0.29990673 0.73000002 4294967295
0.4719601 -0.29867426 0.727 4294967295
0.47834787 -0.29703093 0.72299999 4294967295
0.48665833 -0.2966201 0.722 4294967295
0.49700335 -0.29744175 0.72399998 4294967295
0.50739813 -0.29826343 0.72600001 4294967295
0.55340868 -0.31962663 0.778 4294967295
0.5594579 -0.31757247 0.773 4294967295
0.80973494 -0.43712434 1.064 4294967295
0.84461373 -0.44862762 1.092 4294967295
0.88726127 -0.46382836 1.1289999 4294967295
0.93162692 -0.47943997 1.1670001 4294967295
0.95099324 -0.48190492 1.173 4294967295
0.95239913 -0.4753316 1.1569999 4294967295
0.98014629 -0.48190492 1.173 4294967295
1.0540841 -0.51066315 1.243 4294967295
1.0703908 -0.51107395 1.244 4294967295
1.0771209 -0.50696564 1.234 4294967295
1.0809467 -0.50162482 1.221 4294967295
1.0808585 -0.49464071 1.204 4294967295
1.082168 -0.48847824 1.189 4294967295
1.1144723 -0.49628401 1.2079999 4294967295
1.1519238 -0.50614399 1.232 4294967295
1.2193421 -0.52873969 1.2869999 4294967295
1.2660508 -0.54188627 1.319 4294967295
1.283414 -0.54229712 1.3200001 4294967295
1.2692912 -0.52956134 1.289 4294967295
1.2524037 -0.51600397 1.256 4294967295
1.2458012 -0.50696564 1.234 4294967295
1.2417181 -0.49915984 1.215 4294967295
1.2402658 -0.49258655 1.199 4294967295
1.2499312 -0.4905324 1.194 4294967295
1.2743021 -0.49422985 1.2029999 4294967295
1.2828213 -0.4917649 1.197 4294967295
1.2944437 -0.4905324 1.194 4294967295
1.3114743 -0.49135405 1.196 4294967295
1.3196828 -0.4888891 1.1900001 4294967295
1.3254994 -0.48560244 1.182 4294967295
1.3288496 -0.48149413 1.1720001 4294967295
1.735833 -0.55585456 1.353 4294967295
1.7228527 -0.54640543 1.33 4294967295
1.6726822 -0.52545303 1.279 4294967295
1.6040812 -0.49915984 1.215 4294967295
1.6098509 -0.49628401 1.2079999 4294967295
1.6934617 -0.51723641 1.2589999 4294967295
-0.74965268 -0.21314637 0.53500003 4294967295
-0.74994832 -0.21513841 0.54000002 4294967295
-0.74874336 -0.21673203 0.54400003 4294967295
-0.74743891 -0.21832561 0.54799998 4294967295
-0.7500897 -0.22111446 0.55500001 4294967295
-0.75658375 -0.22509851 0.565 4294967295
-0.7654826 -0.22987936 0.57700002 4294967295
-0.77408314 -0.23466021 0.58899999 4294967295
-0.77978182 -0.23864424 0.59899998 4294967295
-0.78523207 -0.24262831 0.60900003 4294967295
-0.79171067 -0.24701075 0.62 4294967295
-0.80044496 -0.25219002 0.63300002 4294967295
-0.80760401 -0.25697085 0.64499998 4294967295
-0.81074584 -0.26055649 0.65399998 4294967295
-0.81489116 -0.26454052 0.66399997 4294967295
-0.82121772 -0.26932138 0.676 4294967295
-0.82965076 -0.27489907 0.69 4294967295
-0.83773583 -0.28047672 0.704 4294967295
-0.84547293 -0.28605437 0.71799999 4294967295
-0.85169703 -0.29123363 0.73100001 4294967295
-0.8599034 -0.29720971 0.74599999 4294967295
-0.87799925 -0.3067714 0.76999998 4294967295
-0.8853482 -0.31274748 0.78500003 4294967295
-0.89455509 -0.31952035 0.80199999 4294967295
-0.90003055 -0.32509801 0.81599998 4294967295
-0.90406752 -0.33027726 0.829 4294967295
-0.90885955 -0.33585492 0.84299999 4294967295
-0.91010648 -0.34023738 0.85399997 4294967295
-0.90792024 -0.34342462 0.86199999 4294967295
-0.65781409 -0.2517916 0.63200003 4294967295
-0.64893192 -0.2513932 0.63099998 4294967295
-0.63804275 -0.25019798 0.62800002 4294967295
-0.62522095 -0.24820597 0.62300003 4294967295
-0.61946136 -0.24900277 0.625 4294967295
-0.61463082 -0.25019798 0.62800002 4294967295
-0.6087594 -0.2509948 0.63 4294967295
-0.60283828 -0.2517916 0.63200003 4294967295
-0.59592605 -0.25219002 0.63300002 4294967295
-0.5889889 -0.25258842 0.634 4294967295
-0.5838601 -0.25378364 0.63700002 4294967295
-0.57775259 -0.25458044 0.639 4294967295
-0.57248712 -0.25577566 0.64200002 4294967295
-0.56538844 -0.25617406 0.64300001 4294967295
-0.55653119 -0.25577566 0.64200002 4294967295
-0.54855323 -0.25577566 0.64200002 4294967295
-0.5414173 -0.25617406 0.64300001 4294967295
-0.53674531 -0.25776768 0.64700001 4294967295
-0.53197384 -0.2593613 0.65100002 4294967295
-0.5254935 -0.26015809 0.653 4294967295
-0.51579428 -0.2593613 0.65100002 4294967295
-0.50692457 -0.25896287 0.64999998 4294967295
-0.49807975 -0.25856447 0.64899999 4294967295
-0.49076983 -0.25896287 0.64999998 4294967295
-0.48343509 -0.2593613 0.65100002 4294967295
-0.47607547 -0.25975969 0.65200001 4294967295
-0.46869099 -0.26015809 0.653 4294967295
-0.45704973 -0.25816607 0.648 4294967295
-0.44899723 -0.25816607 0.648 4294967295
-0.43414 -0.25418204 0.63800001 4294967295
-0.41626009 -0.27370384 0.68699998 4294967295
-0.37745529 -0.25338522 0.63599998 4294967295
-0.36490348 -0.25019798 0.62800002 4294967295
-0.37017798 -0.2593613 0.65100002 4294967295
-0.36876261 -0.26414213 0.66299999 4294967295
-0.32954434 -0.26573575 0.667 4294967295
-0.32270065 -0.26693097 0.67000002 4294967295
-0.32938966 -0.27967992 0.70200002 4294967295
-0.32751793 -0.28565598 0.71700001 4294967295
-0.30483273 -0.27330545 0.68599999 4294967295
-0.29760382 -0.27450067 0.68900001 4294967295
-0.29365641 -0.2788831 0.69999999 4294967295
-0.28821436 -0.28207034 0.708 4294967295
-0.27902159 -0.28167194 0.70700002 4294967295
-0.27214706 -0.28366396 0.71200001 4294967295
-0.26329923 -0.28366396 0.71200001 4294967295
-0.25266454 -0.28167194 0.70700002 4294967295
-0.24284399 -0.28047672 0.704 4294967295
-0.23442809 -0.28087512 0.70499998 4294967295
-0.21094286 -0.26254851 0.65899998 4294967295
-0.19936931 -0.25816607 0.648 4294967295
-0.192793 -0.26015809 0.653 4294967295
-0.19203156 -0.2705166 0.67900002 4294967295
-0.14195277 -0.30836502 0.77399999 4294967295
-0.13592497 -0.31673154 0.79500002 4294967295
-0.12636282 -0.31752834 0.79699999 4294967295
-0.042340178 -0.28525758 0.71600002 4294967295
-0.034423508 -0.29362407 0.73699999 4294967295
-0.025299296 -0.29402247 0.73799998 4294967295
0.11806864 -0.23306659 0.58499998 4294967295
0.12448126 -0.23147297 0.58099997 4294967295
0.13464803 -0.23665223 0.59399998 4294967295
0.14083396 -0.23466021 0.58899999 4294967295
0.14639257 -0.23187138 0.58200002 4294967295
0.15309699 -0.23107456 0.57999998 4294967295
0.16887249 -0.2434251 0.611 4294967295
0.1929276 -0.26613414 0.66799998 4294967295
0.20062616 -0.26533735 0.66600001 4294967295
0.20231535 -0.25697085 0.64499998 4294967295
0.21000449 -0.25657246 0.64399999 4294967295
0.20548204 -0.24183148 0.60699999 4294967295
0.2074099 -0.23545703 0.59100002 4294967295
0.21112034 -0.23147297 0.58099997 4294967295
0.21796446 -0.23107456 0.57999998 4294967295
0.22478373 -0.23067616 0.579 4294967295
0.23157816 -0.23027776 0.57800001 4294967295
0.23917387 -0.23067616 0.579 4294967295
0.25743216 -0.24103469 0.60500002 4294967295
0.27283314 -0.24820597 0.62300003 4294967295
0.27472028 -0.2430267 0.61000001 4294967295
0.26980531 -0.23226978 0.583 4294967295
0.27087229 -0.22709052 0.56999999 4294967295
0.28527012 -0.23306659 0.58499998 4294967295
0.31454277 -0.2505964 0.62900001 4294967295
0.32543412 -0.25298682 0.63499999 4294967295
0.32860079 -0.24940117 0.62599999 4294967295
0.33423054 -0.24780755 0.62199998 4294967295
0.40903249 -0.29641291 0.74400002 4294967295
0.41602916 -0.2948193 0.74000001 4294967295
0.42407566 -0.29402247 0.73799998 4294967295
0.43265954 -0.29362407 0.73699999 4294967295
0.44121855 -0.29322565 0.736 4294967295
0.44914082 -0.29242885 0.73400003 4294967295
0.45701334 -0.29163203 0.73199999 4294967295
0.46547294 -0.29123363 0.73100001 4294967295
0.47260928 -0.29003841 0.72799999 4294967295
0.47900948 -0.28844479 0.72399998 4294967295
0.48733237 -0.28804639 0.72299999 4294967295
0.49768987 -0.28884321 0.72500002 4294967295
0.50879592 -0.29003841 0.72799999 4294967295
0.83180481 -0.43545607 1.0930001 4294967295
0.86936426 -0.44780657 1.124 4294967295
0.92026842 -0.46653157 1.171 4294967295
0.9683491 -0.4832646 1.2130001 4294967295
0.98585486 -0.48445976 1.216 4294967295
0.99767315 -0.48286617 1.212 4294967295
1.0678833 -0.50916088 1.278 4294967295
1.0820686 -0.50836408 1.276 4294967295
1.0944833 -0.50677043 1.272 4294967295
1.1006885 -0.502388 1.261 4294967295
1.1013085 -0.49561509 1.244 4294967295
1.1050969 -0.49043584 1.2309999 4294967295
1.1149334 -0.48804542 1.225 4294967295
1.1439947 -0.49402151 1.24 4294967295
1.1837139 -0.50438005 1.266 4294967295
1.2468176 -0.52430022 1.316 4294967295
1.2890874 -0.53505719 1.3430001 4294967295
1.3106378 -0.53704917 1.348 4294967295
1.3076948 -0.52908105 1.3279999 4294967295
1.2863063 -0.51394171 1.29 4294967295
1.2730595 -0.502388 1.261 4294967295
1.2529598 -0.48844382 1.226 4294967295
1.2485411 -0.48087415 1.207 4294967295
1.2603997 -0.47967893 1.204 4294967295
1.2721835 -0.47848371 1.201 4294967295
1.2817496 -0.47649169 1.196 4294967295
1.2955279 -0.47609332 1.1950001 4294967295
1.3092812 -0.47569489 1.194 4294967295
1.3196828 -0.47410131 1.1900001 4294967295
1.324378 -0.47051564 1.181 4294967295
1.3311172 -0.4677268 1.174 4294967295
1.7908353 -0.59043539 1.482 4294967295
1.7860563 -0.58286572 1.4630001 4294967295
1.7422478 -0.54103321 1.358 4294967295
1.7396926 -0.53505719 1.3430001 4294967295
1.6713743 -0.50916088 1.278 4294967295
1.666132 -0.5027864 1.262 4294967295
-0.74965268 -0.20649809 0.53500003 4294967295
-0.74855947 -0.20804198 0.53899997 4294967295
-0.74599057 -0.20919992 0.542 4294967295
-0.7447111 -0.21074383 0.546 4294967295
-0.7500897 -0.21421763 0.55500001 4294967295
-0.75658375 -0.21807741 0.565 4294967295
-0.7654826 -0.22270915 0.57700002 4294967295
-0.77408314 -0.22734086 0.58899999 4294967295
-0.77978182 -0.23120064 0.59899998 4294967295
-0.78394264 -0.23467444 0.60799998 4294967295
-0.7904337 -0.23892021 0.61900002 4294967295
-0.79791588 -0.24355192 0.63099998 4294967295
-0.80509984 -0.24818367 0.64300001 4294967295
-0.80950618 -0.25204346 0.653 4294967295
-0.81366396 -0.25590321 0.66299999 4294967295
-0.82000291 -0.26053497 0.67500001 4294967295
-0.82604355 -0.26516667 0.68699998 4294967295
-0.83416587 -0.27057037 0.70099998 4294967295
-0.84076279 -0.2755881 0.71399999 4294967295
-0.84587151 -0.28021982 0.72600001 4294967295
-0.84952921 -0.28446558 0.73699999 4294967295
-0.85519409 -0.28948328 0.75 4294967295
-0.87294203 -0.29874673 0.77399999 4294967295
-0.89120889 -0.30839619 0.79900002 4294967295
-0.89341271 -0.31264195 0.81 4294967295
-0.89425254 -0.31650171 0.81999999 4294967295
-0.89592201 -0.32074746 0.83099997 4294967295
-0.89305532 -0.32344931 0.838 4294967295
-0.87948191 -0.32229137 0.83499998 4294967295
-0.65260983 -0.24200802 0.62699997 4294967295
-0.64481825 -0.24200802 0.62699997 4294967295
-0.63296282 -0.24046412 0.62300003 4294967295
-0.62321377 -0.23969215 0.62099999 4294967295
-0.61648792 -0.24007812 0.62199998 4294967295
-0.61169463 -0.24123608 0.625 4294967295
-0.60682684 -0.24239402 0.62800002 4294967295
-0.60188437 -0.24355192 0.63099998 4294967295
-0.59592605 -0.24432389 0.63300002 4294967295
-0.5889889 -0.24470986 0.634 4294967295
-0.5829435 -0.24548182 0.63599998 4294967295
-0.57775259 -0.24663976 0.639 4294967295
-0.57248712 -0.2477977 0.64200002 4294967295
-0.56626773 -0.24856964 0.64399999 4294967295
-0.55826491 -0.24856964 0.64399999 4294967295
-0.54769874 -0.2474117 0.64099997 4294967295
-0.5414173 -0.24818367 0.64300001 4294967295
-0.53591573 -0.24934161 0.64600003 4294967295
-0.53115666 -0.25088552 0.64999998 4294967295
-0.52388406 -0.25127149 0.65100002 4294967295
-0.51579428 -0.25127149 0.65100002 4294967295
-0.50692457 -0.25088552 0.64999998 4294967295
-0.49807975 -0.25049952 0.64899999 4294967295
-0.49076983 -0.25088552 0.64999998 4294967295
-0.48269245 -0.25088552 0.64999998 4294967295
-0.4746151 -0.25088552 0.64999998 4294967295
-0.4643845 -0.24972759 0.64700001 4294967295
-0.45563909 -0.24934161 0.64600003 4294967295
-0.44761145 -0.24934161 0.64600003 4294967295
-0.44230562 -0.25088552 0.64999998 4294967295
-0.4095951 -0.26092094 0.676 4294967295
-0.38695106 -0.25165749 0.65200001 4294967295
-0.38233516 -0.25397334 0.65799999 4294967295
-0.37586427 -0.25513127 0.66100001 4294967295
-0.37043124 -0.25706115 0.66600001 4294967295
-0.32692143 -0.24316595 0.63 4294967295
-0.31048214 -0.23660433 0.61299998 4294967295
-0.31422815 -0.24548182 0.63599998 4294967295
-0.32221901 -0.25821909 0.66900003 4294967295
-0.32938966 -0.27095637 0.70200002 4294967295
-0.32843149 -0.27751797 0.71899998 4294967295
-0.31771922 -0.27597407 0.71499997 4294967295
-0.30753833 -0.27481613 0.71200001 4294967295
-0.298271 -0.27443016 0.71100003 4294967295
-0.28943563 -0.27443016 0.71100003 4294967295
-0.28020555 -0.27404416 0.70999998 4294967295
-0.27329373 -0.27597407 0.71499997 4294967295
-0.26773685 -0.27944785 0.72399998 4294967295
-0.25838253 -0.27906188 0.72299999 4294967295
-0.24801821 -0.27751797 0.71899998 4294967295
-0.2301053 -0.26709658 0.69199997 4294967295
-0.21446392 -0.25860506 0.67000002 4294967295
-0.20183067 -0.2532014 0.65600002 4294967295
-0.19367874 -0.2532014 0.65600002 4294967295
-0.19118311 -0.26092094 0.676 4294967295
-0.044232477 -0.28871134 0.74800003 4294967295
-0.034937292 -0.28871134 0.74800003 4294967295
0.11867413 -0.22695489 0.588 4294967295
0.12533827 -0.22579695 0.58499998 4294967295
0.13827492 -0.23544641 0.61000001 4294967295
0.14728986 -0.23776227 0.616 4294967295
0.15469319 -0.2373763 0.61500001 4294967295
0.15811224 -0.23120064 0.59899998 4294967295
0.16942526 -0.23660433 0.61299998 4294967295
0.20122865 -0.25783309 0.66799998 4294967295
0.20607936 -0.25358737 0.65700001 4294967295
0.20804793 -0.24625379 0.63800001 4294967295
0.20852871 -0.23776227 0.616 4294967295
0.20916463 -0.23004273 0.59600002 4294967295
0.2118471 -0.22502501 0.583 4294967295
0.21758866 -0.22348109 0.579 4294967295
0.22478373 -0.22348109 0.579 4294967295
0.2319788 -0.22348109 0.579 4294967295
0.23958695 -0.22386706 0.57999998 4294967295
0.24764547 -0.22463903 0.58200002 4294967295
0.27414691 -0.24162205 0.62599999 4294967295
0.26796487 -0.22965676 0.59500003 4294967295
0.27165645 -0.22656892 0.58700001 4294967295
0.27895093 -0.22656892 0.58700001 4294967295
0.29843643 -0.23621835 0.61199999 4294967295
0.31204242 -0.24085009 0.62400001 4294967295
0.31774673 -0.23930618 0.62 4294967295
0.32282668 -0.2373763 0.61500001 4294967295
0.32778236 -0.23544641 0.61000001 4294967295
0.40738317 -0.28600949 0.741 4294967295
0.41434255 -0.28446558 0.73699999 4294967295
0.42465031 -0.28523755 0.73900002 4294967295
0.43207249 -0.28407958 0.736 4294967295
0.44001961 -0.28330764 0.73400003 4294967295
0.44791698 -0.28253567 0.73199999 4294967295
0.45638901 -0.2821497 0.73100001 4294967295
0.46547294 -0.2821497 0.73100001 4294967295
0.47455686 -0.2821497 0.73100001 4294967295
0.48099434 -0.28060579 0.727 4294967295
0.48868048 -0.27983385 0.72500002 4294967295
0.49768987 -0.27983385 0.72500002 4294967295
0.5066992 -0.27983385 0.72500002 4294967295
0.84930849 -0.43075114 1.1160001 4294967295
0.87168461 -0.43499687 1.127 4294967295
0.99414134 -0.48826179 1.265 4294967295
1.0026764 -0.48478803 1.256 4294967295
1.0117985 -0.48170018 1.248 4294967295
1.0314229 -0.48363009 1.253 4294967295
1.0687188 -0.49366552 1.279 4294967295
1.0863086 -0.49443746 1.281 4294967295
1.1022272 -0.49443746 1.281 4294967295
1.1164001 -0.49366552 1.279 4294967295
1.1252116 -0.49057767 1.271 4294967295
1.1284378 -0.48517397 1.257 4294967295
1.1458784 -0.48594591 1.2589999 4294967295
1.1827428 -0.4948234 1.2819999 4294967295
1.2276591 -0.50678873 1.313 4294967295
1.2790303 -0.52106994 1.35 4294967295
1.3034853 -0.52415776 1.358 4294967295
1.3223052 -0.5249297 1.36 4294967295
1.3303431 -0.52145588 1.351 4294967295
1.3222033 -0.51180643 1.326 4294967295
1.3083942 -0.50022709 1.296 4294967295
1.2948614 -0.48903376 1.267 4294967295
1.3064685 -0.48748985 1.263 4294967295
1.2823834 -0.4728227 1.225 4294967295
1.2848949 -0.468191 1.2130001 4294967295
1.2892514 -0.46433118 1.2029999 4294967295
1.2966119 -0.46162933 1.196 4294967295
1.3081846 -0.46047139 1.193 4294967295
1.3196828 -0.45931351 1.1900001 4294967295
1.329985 -0.45776957 1.186 4294967295
1.3367863 -0.45506772 1.179 4294967295
1.7243738 -0.55079019 1.427 4294967295
1.7921604 -0.56661528 1.4680001 4294967295
1.7383989 -0.52299982 1.355 4294967295
1.7176712 -0.51180643 1.326 4294967295
1.7119163 -0.50524485 1.309 4294967295
-0.74404776 -0.19835559 0.53100002 4294967295
-0.74439317 -0.20022334 0.53600001 4294967295
-0.74186146 -0.20134398 0.53899997 4294967295
-0.74334717 -0.2035853 0.54500002 4294967295
-0.74738663 -0.20657369 0.55299997 4294967295
-0.75524467 -0.21068276 0.56400001 4294967295
-0.76415586 -0.21516536 0.57599998 4294967295
-0.77276891 -0.21964799 0.588 4294967295
-0.77717823 -0.22300994 0.597 4294967295
-0.78265327 -0.22674546 0.60699999 4294967295
-0.78787977 -0.23048095 0.61699998 4294967295
-0.79538685 -0.23496358 0.62900001 4294967295
-0.80259556 -0.23944618 0.64099997 4294967295
-0.80826652 -0.24355525 0.65200001 4294967295
-0.81366396 -0.2476643 0.66299999 4294967295
-0.81878811 -0.25177339 0.67400002 4294967295
-0.82484114 -0.25625598 0.68599999 4294967295
-0.83178598 -0.26111215 0.699 4294967295
-0.83723021 -0.26559478 0.71100003 4294967295
-0.84121102 -0.26970381 0.722 4294967295
-0.8437658 -0.27343932 0.73199999 4294967295
-0.84835255 -0.27792194 0.74400002 4294967295
-0.85489672 -0.28315166 0.75800002 4294967295
-0.86332375 -0.28912845 0.77399999 4294967295
-0.87245613 -0.29547885 0.79100001 4294967295
-0.87680376 -0.30033502 0.80400002 4294967295
-0.88406265 -0.30631182 0.81999999 4294967295
-0.87813556 -0.30780602 0.824 4294967295
-0.86262959 -0.30593827 0.81900001 4294967295
-0.64740562 -0.23234871 0.62199998 4294967295
-0.64070463 -0.23272228 0.62300003 4294967295
-0.63296282 -0.23272228 0.62300003 4294967295
-0.62421733 -0.23234871 0.62199998 4294967295
-0.61747909 -0.23272228 0.62300003 4294967295
-0.61169463 -0.23346937 0.625 4294967295
-0.60682684 -0.23459004 0.62800002 4294967295
-0.60188437 -0.23571067 0.63099998 4294967295
-0.59592605 -0.23645778 0.63300002 4294967295
-0.5889889 -0.23683134 0.634 4294967295
-0.5829435 -0.23757842 0.63599998 4294967295
-0.57684845 -0.23832554 0.63800001 4294967295
-0.57159531 -0.23944618 0.64099997 4294967295
-0.56626773 -0.24056683 0.64399999 4294967295
-0.55826491 -0.24056683 0.64399999 4294967295
-0.54940766 -0.24019329 0.64300001 4294967295
-0.5414173 -0.24019329 0.64300001 4294967295
-0.53591573 -0.24131395 0.64600003 4294967295
-0.52952236 -0.24206105 0.648 4294967295
-0.52227455 -0.24243459 0.64899999 4294967295
-0.51420963 -0.24243459 0.64899999 4294967295
-0.50458491 -0.24168749 0.64700001 4294967295
-0.49654484 -0.24168749 0.64700001 4294967295
-0.49001482 -0.24243459 0.64899999 4294967295
-0.48194987 -0.24243459 0.64899999 4294967295
-0.47315475 -0.24206105 0.648 4294967295
-0.46366677 -0.24131395 0.64600003 4294967295
-0.45493373 -0.24094038 0.64499998 4294967295
-0.44761145 -0.24131395 0.64600003 4294967295
-0.37757015 -0.24803784 0.66399997 4294967295
-0.35875094 -0.24094038 0.64499998 4294967295
-0.34149155 -0.23459004 0.62800002 4294967295
-0.33581296 -0.23608424 0.63200003 4294967295
-0.32847819 -0.23645778 0.63300002 4294967295
-0.32111856 -0.23683134 0.634 4294967295
-0.31422815 -0.23757842 0.63599998 4294967295
-0.31354943 -0.24318171 0.65100002 4294967295
-0.3223514 -0.25662953 0.68699998 4294967295
-0.32295004 -0.26410055 0.70700002 4294967295
-0.31371996 -0.26372698 0.70599997 4294967295
-0.29760382 -0.25737664 0.68900001 4294967295
-0.28820276 -0.25662953 0.68699998 4294967295
-0.2829223 -0.25961792 0.69499999 4294967295
-0.2778376 -0.26297989 0.704 4294967295
-0.27405819 -0.26783606 0.71700001 4294967295
-0.27032545 -0.27306578 0.73100001 4294967295
-0.26374316 -0.27568063 0.73799998 4294967295
-0.25077781 -0.27157158 0.727 4294967295
-0.23409557 -0.26297989 0.704 4294967295
-0.21798497 -0.25438821 0.68099999 4294967295
-0.20583037 -0.24990563 0.66900003 4294967295
-0.19722162 -0.24953206 0.66799998 4294967295
-0.1909003 -0.25214693 0.67500001 4294967295
0.12089422 -0.22375704 0.59899998 4294967295
0.13219438 -0.23048095 0.61699998 4294967295
0.139635 -0.23010741 0.616 4294967295
0.16139716 -0.25214693 0.67500001 4294967295
0.19761035 -0.23533712 0.63 4294967295
0.20446089 -0.23421647 0.62699997 4294967295
0.20615909 -0.22749257 0.60900003 4294967295
0.2088137 -0.22226284 0.59500003 4294967295
0.21366397 -0.21964799 0.588 4294967295
0.21871607 -0.21740669 0.58200002 4294967295
0.22556017 -0.21703312 0.58099997 4294967295
0.23358142 -0.21778023 0.583 4294967295
0.2408262 -0.21778023 0.583 4294967295
0.24849647 -0.21815377 0.58399999 4294967295
0.25268814 -0.21553893 0.57700002 4294967295
0.25985837 -0.21553893 0.57700002 4294967295
0.26887971 -0.21703312 0.58099997 4294967295
0.28560394 -0.22450416 0.60100001 4294967295
0.29794881 -0.22823966 0.611 4294967295
0.29754046 -0.22226284 0.59500003 4294967295
0.31877169 -0.23234871 0.62199998 4294967295
0.41715357 -0.27717483 0.74199998 4294967295
0.42407566 -0.27568063 0.73799998 4294967295
0.43207249 -0.27493352 0.736 4294967295
0.44001961 -0.27418643 0.73400003 4294967295
0.44730508 -0.27306578 0.73100001 4294967295
0.45576468 -0.27269223 0.73000002 4294967295
0.46547294 -0.27306578 0.73100001 4294967295
0.47650445 -0.27418643 0.73400003 4294967295
0.48364079 -0.27306578 0.73100001 4294967295
0.49002856 -0.27157158 0.727 4294967295
0.49631691 -0.27007738 0.72299999 4294967295
0.50250584 -0.26858315 0.71899998 4294967295
0.50859535 -0.26708895 0.71499997 4294967295
1.1277413 -0.53604567 1.4349999 4294967295
1.0545665 -0.49346086 1.321 4294967295
1.0385528 -0.47851884 1.281 4294967295
1.0437702 -0.47366267 1.268 4294967295
1.0595273 -0.47366267 1.268 4294967295
1.0829165 -0.47702461 1.277 4294967295
1.1108316 -0.48225433 1.291 4294967295
1.1321118 -0.48449567 1.2970001 4294967295
1.1464586 -0.48374853 1.295 4294967295
1.1562672 -0.48113367 1.288 4294967295
1.174093 -0.48188075 1.29 4294967295
1.2399427 -0.50205255 1.344 4294967295
1.2828243 -0.51251197 1.372 4294967295
1.2989264 -0.51213843 1.3710001 4294967295
1.3217224 -0.51437968 1.377 4294967295
1.3281389 -0.51027066 1.3660001 4294967295
1.3382208 -0.5076558 1.359 4294967295
1.3441403 -0.50354677 1.348 4294967295
1.3326237 -0.49308732 1.3200001 4294967295
1.3234771 -0.48374853 1.295 4294967295
1.3095717 -0.47291556 1.266 4294967295
1.3043672 -0.46544456 1.2460001 4294967295
1.3060803 -0.4605884 1.233 4294967295
1.3021119 -0.45386446 1.215 4294967295
1.3020326 -0.44863474 1.201 4294967295
1.3114743 -0.44676697 1.196 4294967295
1.3274457 -0.44714054 1.197 4294967295
1.3490489 -0.44938183 1.2029999 4294967295
1.3526598 -0.44564632 1.193 4294967295
1.7308486 -0.564062 1.51 4294967295
1.73455 -0.55920583 1.497 4294967295
1.6743498 -0.52297139 1.4 4294967295
1.6760381 -0.51811522 1.387 4294967295
1.6761826 -0.51288551 1.373 4294967295
1.6999619 -0.49981126 1.3380001 4294967295
1.6973444 -0.49420795 1.323 4294967295
1.7008312 -0.49047244 1.313 4294967295
-0.73704165 -0.18995138 0.52600002 4294967295
-0.74022675 -0.19247924 0.53299999 4294967295
-0.74048513 -0.19428486 0.53799999 4294967295
-0.74198323 -0.19645162 0.54400003 4294967295
-0.74603516 -0.1993406 0.55199999 4294967295
-0.75256646 -0.20295183 0.56199998 4294967295
-0.76150256 -0.20728533 0.574 4294967295
-0.76882619 -0.2112577 0.58499998 4294967295
-0.7745747 -0.21486895 0.59500003 4294967295
-0.78007454 -0.2184802 0.60500002 4294967295
-0.78660285 -0.22245255 0.616 4294967295
-0.79159325 -0.22606379 0.62599999 4294967295
-0.79758728 -0.23003617 0.63700002 4294967295
-0.80578709 -0.23473077 0.64999998 4294967295
-0.8112095 -0.23870315 0.66100001 4294967295
-0.81757325 -0.24303663 0.67299998 4294967295
-0.8236388 -0.24737012 0.685 4294967295
-0.82940608 -0.25170362 0.69700003 4294967295
-0.83487511 -0.25603712 0.70899999 4294967295
-0.83888084 -0.2600095 0.72000003 4294967295
-0.8426131 -0.26398185 0.73100001 4294967295
-0.84721226 -0.26831532 0.74299997 4294967295
-0.85151321 -0.27264884 0.755 4294967295
-0.85663134 -0.27734345 0.76800001 4294967295
-0.86032331 -0.28167692 0.77999997 4294967295
-0.86698878 -0.28709382 0.79500002 4294967295
-0.87328142 -0.29251066 0.81 4294967295
-0.87067562 -0.29503852 0.81699997 4294967295
-0.86684269 -0.29720527 0.82300001 4294967295
-0.64428312 -0.22353594 0.61900002 4294967295
-0.63967615 -0.2246193 0.62199998 4294967295
-0.63397878 -0.22534156 0.62400001 4294967295
-0.62722808 -0.22570267 0.625 4294967295
-0.62045246 -0.22606379 0.62599999 4294967295
-0.61267334 -0.22606379 0.62599999 4294967295
-0.60682684 -0.22678605 0.62800002 4294967295
-0.60093057 -0.22750829 0.63 4294967295
-0.59592605 -0.22859167 0.63300002 4294967295
-0.5899179 -0.22931391 0.63499999 4294967295
-0.5829435 -0.22967502 0.63599998 4294967295
-0.57684845 -0.2303973 0.63800001 4294967295
-0.57070363 -0.23111953 0.63999999 4294967295
-0.56538844 -0.23220292 0.64300001 4294967295
-0.55826491 -0.23256403 0.64399999 4294967295
-0.55026209 -0.23256403 0.64399999 4294967295
-0.54225928 -0.23256403 0.64399999 4294967295
-0.5350861 -0.23292515 0.64499998 4294967295
-0.52870518 -0.23364741 0.64700001 4294967295
-0.52066511 -0.23364741 0.64700001 4294967295
-0.51104039 -0.23292515 0.64499998 4294967295
-0.50224525 -0.23256403 0.64399999 4294967295
-0.49424246 -0.23256403 0.64399999 4294967295
-0.48774976 -0.23328629 0.64600003 4294967295
-0.48046467 -0.23364741 0.64700001 4294967295
-0.4724246 -0.23364741 0.64700001 4294967295
-0.46366677 -0.23328629 0.64600003 4294967295
